ncols        126
nrows        58
xllcorner          136.0069444
yllcorner           35.7427754
cellsize             0.0027777
NODATA_value         -999.9000
-999.90000   -999.90000   -999.90000   -999.90000   -999.90000   -999.90000   -999.90000    466.23500    365.97900    297.98900    267.68000    269.90000    303.55200    218.65400    183.57600    156.19600    145.18200    150.33300    143.58600    144.05700    147.30200    169.29700    222.14100    246.23100    183.41600    157.80000    163.67400    213.99900    299.65400    268.04200    345.69500    422.00500    443.59800    420.76200    369.73700    308.88000    206.96500    140.86700    108.17400     96.22100     95.36800    146.30100    127.77100     94.79200     76.92500     55.31100     49.89500     44.26800     40.03500     36.37000     35.91300     35.17500     35.10700     34.21000     33.82800     33.23400     33.95300     34.26600     33.14700     33.16600     32.17600     57.78400    130.49900     98.57900     70.80200     55.12800     29.68100     29.20500     29.18900     28.42100     29.18300     26.90800     26.50400     28.01400     28.69700     28.24100     29.06900     30.10200     31.74300     33.41900     34.71300     35.76300     39.02200     90.19800    102.14500     87.13200    174.45000     87.34600    145.55500    211.24900    214.76400    179.39700    190.09900    288.65900    227.58000    190.25900    135.54700     70.67000     99.67600    157.32700    211.53200    258.62300    207.97000    172.14500    172.16400    193.04000    256.50000    332.31100    426.65700   -999.90000   -999.90000   -999.90000   -999.90000   -999.90000   -999.90000   -999.90000   -999.90000   -999.90000   -999.90000   -999.90000   -999.90000   -999.90000   -999.90000   -999.90000   -999.90000   -999.90000
-999.90000   -999.90000   -999.90000   -999.90000   -999.90000   -999.90000    449.88700    434.00400    354.63300    265.48600    220.39700    235.68000    263.48100    209.90000    177.40100    155.91800    150.93400    178.41100    159.17000    144.39500    156.98900    167.93300    211.37200    225.04700    188.06100    204.08100    163.67400    221.25900    288.18900    279.85500    279.85500    343.59100    410.96800    492.89900    437.34800    281.55400    180.61700    222.11200    136.61000    111.15000     95.37000     84.10700     72.14700     65.83400     59.75200     54.52300     49.90800     45.35500     41.34000     38.58400     38.37200     36.99000     36.99700     35.32400     35.27300     34.43500     34.58800     35.71000     34.00700     34.40400     33.01300     81.15300    197.27100    182.25500    146.07900     66.02000     31.94300     29.44200     29.32700     29.18600     41.26900     26.89800     27.66500     29.31700     30.98200     30.91900     31.41700     32.73000     34.27400     35.79200     37.32200     38.46200     40.60100    123.33900    196.31700    175.77300    234.10500    152.29200     87.50300    163.48300    263.33500    292.57600    309.42700    337.34200    227.58000    143.94300    101.85200     77.48500     77.48800    106.63900    136.32400    225.37900    261.15300    251.93600    279.41600    310.41500    317.34600    343.85100    400.97000   -999.90000   -999.90000   -999.90000   -999.90000   -999.90000   -999.90000   -999.90000   -999.90000   -999.90000   -999.90000   -999.90000   -999.90000   -999.90000   -999.90000   -999.90000   -999.90000   -999.90000
-999.90000   -999.90000   -999.90000   -999.90000   -999.90000   -999.90000    361.64800    329.67200    318.61600    271.94100    222.92800    196.08100    192.96800    184.06500    170.84200    183.31600    150.93400    173.51400    178.64700    148.04500    183.16000    186.52900    212.04000    212.04000    229.90500    197.55900    190.77100    196.66900    244.76000    339.93200    349.88200    357.44800    359.50800    429.00100    430.36300    270.67500    249.25500    214.62400    224.46500    146.88000    126.31300    164.04100    102.92600     71.17500     62.62700     62.62700     48.78500     43.91100     41.29100     38.55500     38.37700     38.20800     37.00700     36.59000     36.98000     35.53300     35.73400     36.49200     35.30100     35.23500     34.69900     43.05100     91.86000    148.68500     69.70400     35.77300     31.95100     30.72500     30.13800     31.79300     54.20600     28.25000     28.23600     40.94500     32.93200     34.35900     35.07700     36.78600     36.98800     38.70700     40.54700     41.12100     43.00300     53.51400    140.56000    220.28000    250.07100    228.19200    167.00700    121.09300    173.50500    216.92100    233.30400    249.92400    220.96800    154.23200    102.80400     94.08300    109.46000     89.52000    111.20300    134.63200    150.69200    208.13200    249.48000    332.06700    392.73700    450.97800    516.40400   -999.90000   -999.90000   -999.90000   -999.90000   -999.90000   -999.90000   -999.90000   -999.90000   -999.90000   -999.90000   -999.90000   -999.90000   -999.90000   -999.90000   -999.90000   -999.90000   -999.90000
-999.90000   -999.90000   -999.90000   -999.90000   -999.90000    370.77100    366.17700    333.15200    268.90200    306.06500    304.52600    243.13800    201.63000    232.55000    195.09000    156.72200    150.94400    155.59700    150.84200    149.53400    175.25200    195.29500    178.74100    179.11300    185.84800    214.41000    214.39200    271.70400    296.91400    379.41600    403.39100    427.32100    408.06300    409.45500    364.99500    318.50400    326.35200    320.14400    276.96500    212.59700    161.53300    187.19100    121.49200    124.86300    106.38600    114.44900     54.29100     43.91900     41.44600     40.42700     40.86700     60.87600     37.80000     37.77500     37.78800     37.42500     37.42300     37.24700     36.68000     34.80800     36.17500     36.06500     59.81500    146.83500    130.95300     67.16100     33.68600     31.93100     31.80500     31.80300     46.90600     34.34500     34.34500     67.42900     34.95400     37.78400     39.17800     40.32300     40.07100     42.29500     44.17200     44.65200     44.64700     53.51400     73.62000    118.43300    198.82000    221.07900    176.12500    176.10600    189.14300    218.21300    233.53700    264.99700    227.00300    169.20300    167.70500    157.22600    187.69600    141.13100    128.43400    135.16600    164.66000    173.33400    182.73900    216.86400    266.74900    348.52900    461.08900   -999.90000   -999.90000   -999.90000   -999.90000   -999.90000   -999.90000   -999.90000   -999.90000   -999.90000   -999.90000   -999.90000   -999.90000   -999.90000   -999.90000   -999.90000   -999.90000   -999.90000
-999.90000   -999.90000   -999.90000   -999.90000   -999.90000    310.10600    269.82000    288.23400    265.83000    241.08600    200.32000    248.21100    222.31500    208.33000    182.01700    161.57400    156.67500    176.11000    164.77500    149.54200    149.56000    150.14500    151.82600    156.46800    172.32900    211.02500    293.22200    350.87800    308.00100    321.85800    358.19700    337.81000    291.47400    265.33500    260.96400    256.85800    261.08500    254.00000    281.96900    261.78300    234.21100    222.57800    207.62800    207.81700    135.00600    122.56200     48.40900     45.24200     43.64400     42.44100     40.86700     90.10000     39.56700     39.58600     38.68500     38.78200     38.42300     38.78100     37.33400     36.41800     37.23800     37.17400     39.88800     62.24600     36.37800     85.65800     35.61800     32.79700     32.41400     32.10100     32.10800     39.56700     48.01100     39.41900     37.79300     39.59400     41.29700     43.58100     44.41600     46.10700     48.46000     48.53900     46.70900     59.89500    131.66400    189.31800    203.72600    256.75400    316.91500    308.93600    341.70700    353.68000    368.26400    377.02500    353.69600    320.27300    308.33300    275.27800    274.01900    270.72600    217.83300    203.82200    203.82200    259.29100    282.86100    275.36700    314.59200    324.89900    390.48900   -999.90000   -999.90000   -999.90000   -999.90000   -999.90000   -999.90000   -999.90000   -999.90000   -999.90000   -999.90000   -999.90000   -999.90000   -999.90000   -999.90000   -999.90000   -999.90000   -999.90000
-999.90000   -999.90000   -999.90000   -999.90000   -999.90000    319.87200    255.82100    233.48400    223.26800    210.13700    200.32000    194.17200    185.70300    185.69500    183.05400    166.76600    158.68100    168.04100    166.99100    182.37300    187.90500    172.54900    196.26900    169.40500    200.13800    232.89400    285.84800    264.25400    226.10400    290.07100    253.58600    243.62900    243.86300    183.98400    183.97800    149.27200    176.38100    200.06300    198.72700    164.15800    159.32200    119.11700    126.00400     82.07400     57.25800     50.34600     48.40900     46.82200     45.43800     43.05700     40.88800     40.20300     39.81700     40.40400     39.94100     39.79500     40.33400     40.25800     37.33600     38.65400     38.42400     38.38100     37.81500     37.18100     36.37800     35.61800     34.62200     34.22800     34.21500     37.99300     37.68000     38.85200     42.14600     44.50400     40.85000     42.59700     43.84200     46.07700     48.31900     50.45400     52.42800     52.57600     50.31200     50.57600     55.99300     83.53700     86.54900    166.90700    191.47400    229.27700    187.25400    184.10000    227.49200    245.00800    246.86000    273.25100    276.46900    300.42800    310.44100    284.14500    312.58100    329.59200    301.41600    331.51100    375.97700    386.17300    400.96300    396.35900    432.72200    502.27900   -999.90000   -999.90000   -999.90000   -999.90000   -999.90000   -999.90000   -999.90000   -999.90000   -999.90000   -999.90000   -999.90000   -999.90000   -999.90000   -999.90000   -999.90000   -999.90000
-999.90000   -999.90000   -999.90000   -999.90000   -999.90000    335.98800    318.20800    287.02800    251.06600    239.92000    234.43700    239.91900    202.77400    188.42000    170.98300    163.91600    163.91600    172.87800    179.35600    182.38900    212.17300    234.66000    215.76000    198.32800    214.97300    217.17400    213.26400    183.25400    201.56900    205.81700    190.27500    171.31300    157.64600    114.54000    107.44300    107.43000    101.25200    101.25200     99.62500     87.52400     76.59000     66.68000     57.38700     57.27600     57.27300     54.13200     51.57400     47.61500     45.29100     42.61200     41.76700     41.74900     41.30800     41.53800     41.35800     40.73500     40.31500     41.66000     37.35500     39.57000     40.31100     39.48100     38.88700     38.45500     37.36800     35.87900     36.00500     39.83500     43.99200     46.56100     63.21100     63.21100    103.64100     91.00300     75.91300     58.57600     50.94400     49.65100     51.74400     54.42200     57.26400     71.32200     65.03700     55.48900     56.47900     58.13300     61.70000     76.65700    101.42400    110.70100     91.62600     92.17800     98.36100    102.95100    107.87800    126.75900    127.24400    120.23100    167.94200    169.88900    199.43300    209.93800    212.35000    225.41700    264.05000    344.73200    396.35900    395.35800    432.71200   -999.90000   -999.90000   -999.90000   -999.90000   -999.90000   -999.90000   -999.90000   -999.90000   -999.90000   -999.90000   -999.90000   -999.90000   -999.90000   -999.90000   -999.90000   -999.90000   -999.90000
-999.90000   -999.90000   -999.90000   -999.90000   -999.90000    349.48200    332.50600    349.56500    299.36300    312.39400    295.07200    262.31800    218.73600    193.58100    185.16500    169.47300    168.34900    196.81200    190.16400    185.26300    180.46400    171.10800    170.43200    167.25300    168.34500    168.34500    166.29400    163.90000    155.21700    158.23900    150.20400    142.27800    117.71300    114.54000    163.24300    162.38400    192.81800    230.44100    180.21600    136.19300    108.10000     71.36300     69.13200     85.90100    100.55400     80.90500     73.11100     49.00700     46.60000     46.60000     97.98500    124.26500     96.32400     80.34900     43.02700     41.85700     42.20400     41.61000     40.22500     41.25500     41.53200     41.03000     39.90000     38.71900     37.38600     40.38300     44.56300     43.35000     53.98700     55.28800     69.93800    135.86800    203.34700    185.85700    150.39200     86.29400     60.10300     73.60500     66.87600     58.05400     60.72400     81.60500    106.91000    126.09200    113.31900     81.40300     66.32900     66.32900     69.75600     73.67600     78.44300     92.17800    106.16400    110.91700    102.95100    107.87800    116.53800    120.23100    120.23100    123.10900    147.26600    178.32000    210.67400    226.70400    283.75500    330.30300    356.80100    374.51800   -999.90000   -999.90000   -999.90000   -999.90000   -999.90000   -999.90000   -999.90000   -999.90000   -999.90000   -999.90000   -999.90000   -999.90000   -999.90000   -999.90000   -999.90000   -999.90000   -999.90000   -999.90000
-999.90000   -999.90000   -999.90000   -999.90000   -999.90000    414.96900    400.78600    421.26700    362.20900   -999.90000   -999.90000   -999.90000    265.56100    222.29900    189.23200    181.25400    168.35300    161.92900    161.92800    160.08700    153.50000    151.74200    147.02900    147.02700    147.01700    147.01000    146.99400    149.32200    126.12400    126.12100    125.90800    120.60800    116.39200    139.81700    139.81700    140.54600    159.99300    153.83500    112.58100     88.54100     81.98800     80.95400     77.61500     97.92200    135.57300    111.47900     69.09400     54.26000     49.81400     52.90200     63.25700     77.34700    148.29200    141.05300     44.55800     43.97900     43.39400     42.64700     42.28000     42.81700     42.81500     41.71100     93.22100     63.01600     40.39300     40.39300     49.26200     78.02100    138.79900     73.91300     93.72100    161.65200    253.80500    219.47200    127.24600     80.35800     79.84200    117.33900     79.26200     66.89000     65.54300     67.18100    112.00200    197.20700    221.32000    188.83200    122.16800    122.16800    105.33100    105.33700    132.25500    190.13200    222.60700    179.30800    182.11700    195.63700    180.95600    203.05300    147.02000    138.49500    222.07200    300.77600    347.50800    359.95000    354.42200    367.00700    411.60800   -999.90000   -999.90000   -999.90000   -999.90000   -999.90000   -999.90000   -999.90000   -999.90000   -999.90000   -999.90000   -999.90000   -999.90000   -999.90000   -999.90000   -999.90000   -999.90000   -999.90000   -999.90000   -999.90000
-999.90000   -999.90000   -999.90000   -999.90000   -999.90000   -999.90000   -999.90000   -999.90000   -999.90000   -999.90000   -999.90000   -999.90000   -999.90000   -999.90000   -999.90000   -999.90000    188.79200    175.52000    167.30600    163.28500    162.70400    163.33500    160.14300    154.33600    150.86000    150.58100    137.86200    126.13900    126.12400    127.58300    145.10500    152.73500    142.50600    147.93800    160.86300    158.04900    182.53700    169.30100    113.26200     96.46300    123.17800    107.87000    111.33700    117.76700    146.69700     83.42700     67.02700     56.97100     53.79100     52.91600     56.90800     90.65200    168.76100    102.83000     45.54000     45.65600     44.95900     44.70400     42.65600     44.21000     51.71200     59.02100    125.58700     97.26300     76.59700     76.42600     62.75700     96.26300    166.33100     87.51700    134.17100    196.71400    263.98000    214.71500    122.73400    101.40500    141.03100    202.21000    169.40900    109.20400     72.52000     71.86700     75.12100    104.70100    200.13100    255.00000    237.04000    216.12500    180.43900    153.99400    191.72500    306.91700    336.75600    318.89700    277.10700    300.98200    278.19800    211.34600    195.63000    144.66900    178.16500    209.88500    230.41000    253.81400    273.98700    315.78100    395.74300   -999.90000   -999.90000   -999.90000   -999.90000   -999.90000   -999.90000   -999.90000   -999.90000   -999.90000   -999.90000   -999.90000   -999.90000   -999.90000   -999.90000   -999.90000   -999.90000   -999.90000   -999.90000   -999.90000
-999.90000   -999.90000   -999.90000   -999.90000   -999.90000   -999.90000   -999.90000   -999.90000   -999.90000   -999.90000   -999.90000   -999.90000   -999.90000   -999.90000   -999.90000   -999.90000   -999.90000    205.97000    187.25800    215.54200    209.29500    186.53200    219.70300    186.17000    162.64200    150.93800    138.72700    148.21900    170.15000    149.78700    182.40000    192.15900    162.57400    173.55200    177.06900    190.50700    205.34200    191.87500    125.28500    102.35200    147.52000    123.66100    168.35100    158.13300    135.73100    110.52400     76.02800     61.88200     82.25000     63.53500     69.01800     78.36500     74.91200     78.43500     46.91800     47.02500     46.40000     45.78000     42.67000     44.87500     70.17500    176.60900    249.78300    233.33200    170.88500     97.69500    110.80800    107.19300    161.96700     95.31200    130.18900    204.02400    277.35800    193.12100    162.91700    169.50300    245.69100    235.40500    169.11400    107.01700     81.34300     84.52600     81.78000     81.78000     97.13800    107.00600    132.11000    147.23500    194.97000    229.73500    251.25000    345.99200    464.10700    467.77800    402.58800    421.60800    315.00500    251.98000    261.06100    183.89500    204.92900    232.08800    225.15100    276.28800    403.71300    476.75100    539.08700   -999.90000   -999.90000   -999.90000   -999.90000   -999.90000   -999.90000   -999.90000   -999.90000   -999.90000   -999.90000   -999.90000   -999.90000   -999.90000   -999.90000   -999.90000   -999.90000   -999.90000   -999.90000   -999.90000
-999.90000   -999.90000   -999.90000   -999.90000   -999.90000   -999.90000   -999.90000   -999.90000   -999.90000   -999.90000   -999.90000   -999.90000   -999.90000   -999.90000   -999.90000   -999.90000   -999.90000    218.73300    212.91200    217.54300    261.23300    224.01000    274.42200    207.41700    192.65200    173.75000    152.71300    138.74700    177.03700    188.76200    218.79400    198.39800    198.42500    162.57400    212.16200    246.15300    259.54100    177.11200    129.75600    111.41900    150.96100    163.45300    137.94900    109.35900     97.07000     90.47200    122.04000    120.10000     89.76400     95.86200     95.47800     60.73900     51.62200     50.39500     48.29100     48.03500     48.33600     47.91200     46.95100     46.77400     48.28700     49.15500    155.22200    180.59400    243.80500    207.41700    226.47200    192.57600    196.69300    130.58800    169.02400    179.22700    287.40200    340.72400    284.50200    266.31400    326.85800    245.54600    215.35900    158.69800     92.63100    171.07900    164.42100    104.04800    141.88800    176.81500    112.70600    112.70600    126.99100    195.61900    266.28000    296.32300    387.64000    483.77700    540.61700    456.03600    347.35100    359.58100    341.46200    227.11000    213.19000    327.52700    316.24400    361.44600    457.80100   -999.90000   -999.90000   -999.90000   -999.90000   -999.90000   -999.90000   -999.90000   -999.90000   -999.90000   -999.90000   -999.90000   -999.90000   -999.90000   -999.90000   -999.90000   -999.90000   -999.90000   -999.90000   -999.90000   -999.90000   -999.90000
-999.90000   -999.90000   -999.90000   -999.90000   -999.90000   -999.90000   -999.90000   -999.90000   -999.90000   -999.90000   -999.90000   -999.90000   -999.90000   -999.90000   -999.90000   -999.90000   -999.90000   -999.90000    245.82600    230.75000    299.49000    324.38600    296.37400    265.00300    261.47800    213.95000    162.76800    145.35300    145.35300    190.57200    238.68500    269.41900    232.32300    195.38200    199.82700    239.64400    278.02800    214.51800    148.58900    142.09800    144.13200    173.35500    170.78600    151.72500    104.92200    126.90100    146.92300    172.33400    173.01800    129.39500     76.18700     60.75900     54.46700     53.02300     50.70200     49.35700     49.58800     49.09100     48.03300     48.04900     48.62100     49.15500     55.07500    113.38800    208.23800    237.45700    269.45600    350.62800    276.34500    253.97200    265.99000    274.03400    341.70200    503.15100    445.38400    421.89700    407.78400    347.51900    254.35900    162.04100    122.42500    233.81700    141.64300    124.38500    122.89700    199.06200    266.51300    182.46600    139.61400    140.15100    210.75200    292.19400    367.87900    448.77700    468.51600    522.18800    470.73400    456.87500    352.22400    262.49100    234.51200    288.28200    343.34300    441.41700   -999.90000   -999.90000   -999.90000   -999.90000   -999.90000   -999.90000   -999.90000   -999.90000   -999.90000   -999.90000   -999.90000   -999.90000   -999.90000   -999.90000   -999.90000   -999.90000   -999.90000   -999.90000   -999.90000   -999.90000   -999.90000   -999.90000
-999.90000   -999.90000   -999.90000   -999.90000   -999.90000   -999.90000   -999.90000   -999.90000   -999.90000   -999.90000   -999.90000   -999.90000   -999.90000   -999.90000   -999.90000   -999.90000   -999.90000   -999.90000   -999.90000   -999.90000   -999.90000   -999.90000    340.03300    251.56100    216.33300    193.52100    165.03900    155.36400    150.66400    205.43700    272.37700    249.19300    209.51600    212.38500    206.46400    213.08300    242.34800    255.24200    201.49500    201.50300    163.25400    233.48300    270.26800    174.65400    139.15200    212.26700    196.87500    110.61700    110.61700    119.33600    109.37000     68.00300     57.75200     54.99900     52.42500     51.60600     51.54200     51.96800     50.20600     49.59300     50.30000     51.35700     50.90100     55.07600     85.51400    101.32700    202.34700    323.46500    382.97800    362.47700    411.47700    427.07500    486.86800    548.23900    440.56200    294.48900    250.69400    210.39200    157.05900    157.05900    216.22900    252.52100    141.65200    152.53100    179.24500    141.78700    227.25100    297.31400    231.63900    161.88000    161.88000    242.62800    312.64600    312.87100    336.90400    415.56600    493.59000    517.45300    404.65900    323.50500    317.97300   -999.90000   -999.90000   -999.90000   -999.90000   -999.90000   -999.90000   -999.90000   -999.90000   -999.90000   -999.90000   -999.90000   -999.90000   -999.90000   -999.90000   -999.90000   -999.90000   -999.90000   -999.90000   -999.90000   -999.90000   -999.90000   -999.90000   -999.90000   -999.90000   -999.90000
-999.90000   -999.90000   -999.90000   -999.90000   -999.90000   -999.90000   -999.90000   -999.90000   -999.90000   -999.90000   -999.90000   -999.90000   -999.90000   -999.90000   -999.90000   -999.90000   -999.90000   -999.90000   -999.90000   -999.90000   -999.90000   -999.90000   -999.90000    282.38200    216.31300    216.04200    183.89900    161.85000    150.66500    189.45300    236.38500    215.55800    175.72300    173.98100    193.48200    206.39100    222.81500    283.21400    284.80500    266.35800    200.50500    275.14100    358.00500    293.30100    228.26200    256.88800    157.62400    107.74200     93.50500     79.70100     69.45400     66.92000     59.47700     57.22200     57.21700     60.17900     53.55900     52.78000     52.47400     50.88600     51.40900     52.32300     51.70000     54.86200     64.67500     87.52000    158.19500    234.29400    286.81800    369.67800    473.84200    595.32000    578.90700    444.13400    348.99500    294.48900    284.15200    210.39200    253.19300    199.97800    321.54700    235.95200    216.45900    152.53100    246.46200    168.15100    168.15400    290.24800    345.15400    240.62500    185.79700    218.42400    244.99700    274.32200    344.64300    409.12900    497.10800   -999.90000   -999.90000   -999.90000   -999.90000   -999.90000   -999.90000   -999.90000   -999.90000   -999.90000   -999.90000   -999.90000   -999.90000   -999.90000   -999.90000   -999.90000   -999.90000   -999.90000   -999.90000   -999.90000   -999.90000   -999.90000   -999.90000   -999.90000   -999.90000   -999.90000   -999.90000   -999.90000   -999.90000   -999.90000
-999.90000   -999.90000   -999.90000   -999.90000   -999.90000   -999.90000   -999.90000   -999.90000   -999.90000   -999.90000   -999.90000   -999.90000   -999.90000   -999.90000   -999.90000   -999.90000   -999.90000   -999.90000   -999.90000   -999.90000   -999.90000   -999.90000   -999.90000   -999.90000    299.75600    293.35900    216.07200    173.95600    153.74300    155.35700    155.95500    157.90100    164.30000    204.09800    226.82000    267.54600    286.36900    267.71700    266.19200    249.46600    278.92200    265.62800    338.68800    266.81500    231.40000    259.76300    178.46800    140.19300    122.44100    110.86900     76.41100     71.59700     74.33400     60.41300     58.73900     86.47000     55.69700     55.70400     54.78800     52.52300     52.72100     53.87900     53.44900     55.61700     58.82100    103.88300    181.61300    294.84200    391.86000    480.61400    584.93500    707.12000    661.04200    502.86900    445.26900    419.88500    356.34500    273.20900    319.43200    243.26300    343.59900    320.78000    225.50100    193.82100    287.17300    222.40700    168.15400    290.24800    322.86100    219.20500    227.27900    337.34700    382.57800    392.11100    424.42300    564.19300   -999.90000   -999.90000   -999.90000   -999.90000   -999.90000   -999.90000   -999.90000   -999.90000   -999.90000   -999.90000   -999.90000   -999.90000   -999.90000   -999.90000   -999.90000   -999.90000   -999.90000   -999.90000   -999.90000   -999.90000   -999.90000   -999.90000   -999.90000   -999.90000   -999.90000   -999.90000   -999.90000   -999.90000   -999.90000   -999.90000
-999.90000   -999.90000   -999.90000   -999.90000   -999.90000   -999.90000   -999.90000   -999.90000   -999.90000   -999.90000   -999.90000   -999.90000   -999.90000   -999.90000   -999.90000   -999.90000   -999.90000   -999.90000   -999.90000   -999.90000   -999.90000   -999.90000   -999.90000   -999.90000    274.02000    256.72000    189.49400    176.63300    165.95700    185.61600    183.50000    169.49500    163.48800    200.49000    278.40500    273.41500    225.35700    216.07800    194.91500    203.79500    226.15500    307.53400    242.61500    209.68600    157.91500    216.15100    240.44000    199.98300    122.44100     90.90700     79.39200     85.09200     79.17400     99.05600     92.74700    108.69900     86.25500     58.83100     55.97700     54.39400     54.23200     55.44400     55.42400     55.80000     59.92500    144.42800    263.93500    367.08800    439.76100    506.71300    586.69300    670.78400    732.09400    626.49500    614.01900    495.41100    390.86700    376.88700    402.43100    339.56000    389.76400    329.29000    298.92400    285.28300    286.48000    244.05000    188.53400    291.10700    328.89300    229.17100    229.17100    334.34700    452.24600    527.98800    551.38300   -999.90000   -999.90000   -999.90000   -999.90000   -999.90000   -999.90000   -999.90000   -999.90000   -999.90000   -999.90000   -999.90000   -999.90000   -999.90000   -999.90000   -999.90000   -999.90000   -999.90000   -999.90000   -999.90000   -999.90000   -999.90000   -999.90000   -999.90000   -999.90000   -999.90000   -999.90000   -999.90000   -999.90000   -999.90000   -999.90000   -999.90000
-999.90000   -999.90000   -999.90000   -999.90000   -999.90000   -999.90000   -999.90000   -999.90000   -999.90000   -999.90000   -999.90000   -999.90000   -999.90000   -999.90000   -999.90000   -999.90000   -999.90000   -999.90000   -999.90000   -999.90000   -999.90000   -999.90000   -999.90000   -999.90000    233.55000    206.97700    189.49400    191.61100    173.12800    211.87600    246.57200    210.90000    190.97900    171.12000    183.21100    184.94900    187.17000    194.91500    194.91500    194.91500    223.86200    274.15500    244.28000    182.17400    128.73300    151.29700    148.37500    182.13100    136.94100     90.90800    123.27900    131.63200    101.34900     95.68000    112.52800    101.68100     67.07800     61.33200     58.97700     57.54100     55.42700     55.43700     56.64900     56.67100     58.75100    127.47700    212.49600    264.72200    300.09800    375.84700    448.29400    570.75000    642.41600    596.50600    522.67300    486.29800    473.67900    473.68700    530.24300    496.74400    471.98600    423.37500    395.15800    347.04400    330.01700    239.70700    239.70700    372.32900    391.99900    266.83600    239.11600    279.59800    359.84400    473.02500    616.39100   -999.90000   -999.90000   -999.90000   -999.90000   -999.90000   -999.90000   -999.90000   -999.90000   -999.90000   -999.90000   -999.90000   -999.90000   -999.90000   -999.90000   -999.90000   -999.90000   -999.90000   -999.90000   -999.90000   -999.90000   -999.90000   -999.90000   -999.90000   -999.90000   -999.90000   -999.90000   -999.90000   -999.90000   -999.90000   -999.90000   -999.90000
-999.90000   -999.90000   -999.90000   -999.90000   -999.90000   -999.90000   -999.90000   -999.90000   -999.90000   -999.90000   -999.90000   -999.90000   -999.90000   -999.90000   -999.90000   -999.90000   -999.90000   -999.90000   -999.90000   -999.90000   -999.90000   -999.90000   -999.90000   -999.90000   -999.90000    285.58200    231.28400    227.39500    201.02200    186.75200    223.41800    272.02600    221.06100    188.33600    189.74500    210.53100    221.69900    221.72600    260.17500    219.50500    228.32900    199.03300    164.37700    137.73600    134.00400    125.03800    105.30200    105.28300    105.28000    111.30900    145.93400    157.03700    127.11500    100.79900     74.67100     69.71100     67.07800     63.57100     61.66000     60.67800     58.89300     57.72100     57.47600     58.69400     59.08700     69.90000    115.77800    195.98800    272.44000    319.52700    404.89700    499.35000    464.08600    443.50600    423.74000    321.64200    341.07400    371.13400    500.31900    520.84000    593.15900    596.81800    499.30400    461.58400    364.20900    284.18900    282.15700    420.25500    423.13000    283.84800    316.22300    338.48300    429.68900    494.60500   -999.90000   -999.90000   -999.90000   -999.90000   -999.90000   -999.90000   -999.90000   -999.90000   -999.90000   -999.90000   -999.90000   -999.90000   -999.90000   -999.90000   -999.90000   -999.90000   -999.90000   -999.90000   -999.90000   -999.90000   -999.90000   -999.90000   -999.90000   -999.90000   -999.90000   -999.90000   -999.90000   -999.90000   -999.90000   -999.90000   -999.90000   -999.90000
-999.90000   -999.90000   -999.90000   -999.90000   -999.90000   -999.90000   -999.90000   -999.90000   -999.90000   -999.90000   -999.90000   -999.90000   -999.90000   -999.90000   -999.90000   -999.90000   -999.90000   -999.90000   -999.90000   -999.90000   -999.90000   -999.90000   -999.90000   -999.90000   -999.90000   -999.90000    289.63100    253.37400    228.13400    212.78400    215.73700    277.67600    233.21300    212.37300    227.50000    213.29500    229.07300    272.21800    293.48300    266.29200    265.91800    230.40100    166.40000    169.72000    214.94200    162.20200    131.31100    162.03100    150.52900    198.99800    204.25200    155.07300    106.91100     83.22400     76.25500     73.87700     68.89100     71.18500     76.42300     70.81500     91.10300     61.46700     59.88700     59.88800     60.54700     61.01900     68.41800    144.72400    213.94300    310.59000    361.78400    379.14900    328.42900    354.01000    344.19700    238.97100    245.28300    287.37100    335.93800    407.92700    509.38600    658.16500    646.01000    504.85000    395.81300    357.66900    391.13600    469.12000    446.14100    314.41400    370.05200    454.97400    467.25300   -999.90000   -999.90000   -999.90000   -999.90000   -999.90000   -999.90000   -999.90000   -999.90000   -999.90000   -999.90000   -999.90000   -999.90000   -999.90000   -999.90000   -999.90000   -999.90000   -999.90000   -999.90000   -999.90000   -999.90000   -999.90000   -999.90000   -999.90000   -999.90000   -999.90000   -999.90000   -999.90000   -999.90000   -999.90000   -999.90000   -999.90000   -999.90000   -999.90000
-999.90000   -999.90000   -999.90000   -999.90000   -999.90000   -999.90000   -999.90000   -999.90000   -999.90000   -999.90000   -999.90000   -999.90000   -999.90000   -999.90000   -999.90000   -999.90000   -999.90000   -999.90000   -999.90000   -999.90000   -999.90000   -999.90000   -999.90000   -999.90000   -999.90000   -999.90000    337.25500    277.48800    293.07500    272.56500    279.08500    298.15800    297.68000    272.14800    257.07200    240.66000    253.43200    268.62500    337.48000    349.49600    308.85500    240.97300    205.51200    223.11800    204.81600    204.79800    167.17300    173.93600    237.47300    260.79000    216.71700    151.22200    109.62600     89.29300     82.20800     75.24100     74.73600     86.70100    132.33100     96.96900    130.66900     69.97400     63.53500     62.00200     62.49100     62.69000     62.49500     87.63400    184.19800    215.48500    209.07100    215.25700    221.15200    256.66700    252.56700    172.57700    207.31200    302.78300    364.35200    455.86100    547.47000    580.26400    507.13000    541.26500    499.86700    519.76400    568.92000    590.65700    454.71900    390.00400    446.25800    519.22900   -999.90000   -999.90000   -999.90000   -999.90000   -999.90000   -999.90000   -999.90000   -999.90000   -999.90000   -999.90000   -999.90000   -999.90000   -999.90000   -999.90000   -999.90000   -999.90000   -999.90000   -999.90000   -999.90000   -999.90000   -999.90000   -999.90000   -999.90000   -999.90000   -999.90000   -999.90000   -999.90000   -999.90000   -999.90000   -999.90000   -999.90000   -999.90000   -999.90000   -999.90000
-999.90000   -999.90000   -999.90000   -999.90000   -999.90000   -999.90000   -999.90000   -999.90000   -999.90000   -999.90000   -999.90000   -999.90000   -999.90000   -999.90000   -999.90000   -999.90000   -999.90000   -999.90000   -999.90000   -999.90000   -999.90000   -999.90000   -999.90000   -999.90000   -999.90000   -999.90000   -999.90000    373.86000    394.85500    352.19900   -999.90000    362.33400   -999.90000   -999.90000    327.63800    293.52500   -999.90000   -999.90000   -999.90000   -999.90000   -999.90000   -999.90000    297.08600    290.56600    223.11800    266.67700    182.31200    199.09500    245.67700    181.55100    142.81500    112.91600    105.24100    124.70900     82.20800     81.59600    120.45000    102.10300    116.36400    160.24900    159.92200    104.66900     69.97600     65.03900     64.83500     64.84900     65.31400     80.54500    116.35000     93.72300    116.24700    137.19300    150.25000    138.48500    138.48500    136.53700    242.50600    309.03400    392.16200    445.26000    389.79800    471.47700    353.69900    415.61600    541.17000    631.58800    581.73200    607.91700    530.93800    573.26300    539.98100   -999.90000   -999.90000   -999.90000   -999.90000   -999.90000   -999.90000   -999.90000   -999.90000   -999.90000   -999.90000   -999.90000   -999.90000   -999.90000   -999.90000   -999.90000   -999.90000   -999.90000   -999.90000   -999.90000   -999.90000   -999.90000   -999.90000   -999.90000   -999.90000   -999.90000   -999.90000   -999.90000   -999.90000   -999.90000   -999.90000   -999.90000   -999.90000   -999.90000   -999.90000   -999.90000
-999.90000   -999.90000   -999.90000   -999.90000   -999.90000   -999.90000   -999.90000   -999.90000   -999.90000   -999.90000   -999.90000   -999.90000   -999.90000   -999.90000   -999.90000   -999.90000   -999.90000   -999.90000   -999.90000   -999.90000   -999.90000   -999.90000   -999.90000   -999.90000   -999.90000   -999.90000   -999.90000   -999.90000   -999.90000   -999.90000   -999.90000   -999.90000   -999.90000   -999.90000   -999.90000   -999.90000   -999.90000   -999.90000   -999.90000   -999.90000   -999.90000   -999.90000   -999.90000   -999.90000    340.64700    321.34400    297.55500    256.60500    198.13700    160.51000    124.37800    127.58500    139.21500     96.86000     93.25500     91.02600    107.13200    134.83000    186.77600    162.08800    135.70200     87.21000     70.73600     68.79100     67.32900     68.03400     66.82300     66.40700     68.26100     69.03700     81.44600     88.61800     98.16400    103.23600    114.09900    164.25400    160.99700    201.91500    281.49700    322.96700    282.24700    382.43500    262.15200    329.69400    487.30900    468.29900    392.17900    484.55500    578.38100    620.45600   -999.90000   -999.90000   -999.90000   -999.90000   -999.90000   -999.90000   -999.90000   -999.90000   -999.90000   -999.90000   -999.90000   -999.90000   -999.90000   -999.90000   -999.90000   -999.90000   -999.90000   -999.90000   -999.90000   -999.90000   -999.90000   -999.90000   -999.90000   -999.90000   -999.90000   -999.90000   -999.90000   -999.90000   -999.90000   -999.90000   -999.90000   -999.90000   -999.90000   -999.90000   -999.90000   -999.90000
-999.90000   -999.90000   -999.90000   -999.90000   -999.90000   -999.90000   -999.90000   -999.90000   -999.90000   -999.90000   -999.90000   -999.90000   -999.90000   -999.90000   -999.90000   -999.90000   -999.90000   -999.90000   -999.90000   -999.90000   -999.90000   -999.90000   -999.90000   -999.90000   -999.90000   -999.90000   -999.90000   -999.90000   -999.90000   -999.90000   -999.90000   -999.90000   -999.90000   -999.90000   -999.90000   -999.90000   -999.90000   -999.90000   -999.90000   -999.90000   -999.90000   -999.90000   -999.90000   -999.90000    297.42900    231.67900    212.59000    165.70800    148.31600    147.21900    167.55100    163.83200    120.47700     96.87700     96.86700    105.14900    131.61500    181.76400    139.11600    135.82500     87.22800     78.21100     85.66300     82.10600     70.95300     69.74100     69.10800     69.11900     69.81200     69.79300     71.76900     91.06600     91.08100     91.08300     93.60200    101.54600    123.65000    186.05500    170.54900    266.77300    203.14100    293.23700    204.33200    262.92800    363.71200    307.50500    315.75800    349.74600    392.45400    469.18900   -999.90000   -999.90000   -999.90000   -999.90000   -999.90000   -999.90000   -999.90000   -999.90000   -999.90000   -999.90000   -999.90000   -999.90000   -999.90000   -999.90000   -999.90000   -999.90000   -999.90000   -999.90000   -999.90000   -999.90000   -999.90000   -999.90000   -999.90000   -999.90000   -999.90000   -999.90000   -999.90000   -999.90000   -999.90000   -999.90000   -999.90000   -999.90000   -999.90000   -999.90000   -999.90000   -999.90000
-999.90000   -999.90000   -999.90000   -999.90000   -999.90000   -999.90000   -999.90000   -999.90000   -999.90000   -999.90000   -999.90000   -999.90000   -999.90000   -999.90000   -999.90000   -999.90000   -999.90000   -999.90000   -999.90000   -999.90000   -999.90000   -999.90000   -999.90000   -999.90000   -999.90000   -999.90000   -999.90000   -999.90000   -999.90000   -999.90000   -999.90000   -999.90000   -999.90000   -999.90000   -999.90000   -999.90000   -999.90000   -999.90000   -999.90000   -999.90000   -999.90000   -999.90000   -999.90000   -999.90000    318.27700    255.25000    212.40900    199.96600    196.13700    187.56200    196.55100    140.99900    102.51200    118.16400    148.83000    146.69200    158.79800    140.72800    114.16700     89.25800     87.23100    106.31800    143.15900    124.91800     84.81200     72.46200     72.47000     72.01200     70.87400     71.19700     71.76900     74.28500     75.54500     75.80500    124.58000    101.54600    104.09100    123.13200    127.71000    168.20000    190.07500    219.78100    192.00200    236.80900    196.70000    196.70000    239.71400    339.03800    445.65200    491.23600    557.02700   -999.90000   -999.90000   -999.90000   -999.90000   -999.90000   -999.90000   -999.90000   -999.90000   -999.90000   -999.90000   -999.90000   -999.90000   -999.90000   -999.90000   -999.90000   -999.90000   -999.90000   -999.90000   -999.90000   -999.90000   -999.90000   -999.90000   -999.90000   -999.90000   -999.90000   -999.90000   -999.90000   -999.90000   -999.90000   -999.90000   -999.90000   -999.90000   -999.90000   -999.90000   -999.90000
-999.90000   -999.90000   -999.90000   -999.90000   -999.90000   -999.90000   -999.90000   -999.90000   -999.90000   -999.90000   -999.90000   -999.90000   -999.90000   -999.90000   -999.90000   -999.90000   -999.90000   -999.90000   -999.90000   -999.90000   -999.90000   -999.90000   -999.90000   -999.90000   -999.90000   -999.90000   -999.90000   -999.90000   -999.90000   -999.90000   -999.90000   -999.90000   -999.90000   -999.90000   -999.90000   -999.90000   -999.90000   -999.90000   -999.90000   -999.90000   -999.90000   -999.90000   -999.90000   -999.90000    368.87400    307.58500    282.53800    279.99000    269.02900    250.07600    176.90700    131.91000    117.42400    159.49800    198.85400    151.46500    118.82600    108.76600    108.76600    100.33200    125.00100    146.89500    188.70000    131.08600    108.70000    100.71000     73.36000     73.36000     71.86200     75.97600     74.30400     74.29600     75.55500     75.80500     95.04700    127.53700    172.18600    157.31800    139.09200    127.71400    131.33100    141.40600    147.57500    162.25600    194.60700    234.47500    240.87100    304.99300    426.29300    510.07000    652.84700   -999.90000   -999.90000   -999.90000   -999.90000   -999.90000   -999.90000   -999.90000   -999.90000   -999.90000   -999.90000   -999.90000   -999.90000   -999.90000   -999.90000   -999.90000   -999.90000   -999.90000   -999.90000   -999.90000   -999.90000   -999.90000   -999.90000   -999.90000   -999.90000   -999.90000   -999.90000   -999.90000   -999.90000   -999.90000   -999.90000   -999.90000   -999.90000   -999.90000   -999.90000   -999.90000
-999.90000   -999.90000   -999.90000   -999.90000   -999.90000   -999.90000   -999.90000   -999.90000   -999.90000   -999.90000   -999.90000   -999.90000   -999.90000   -999.90000   -999.90000   -999.90000   -999.90000   -999.90000   -999.90000   -999.90000   -999.90000   -999.90000   -999.90000   -999.90000   -999.90000   -999.90000   -999.90000   -999.90000   -999.90000   -999.90000   -999.90000   -999.90000   -999.90000   -999.90000   -999.90000   -999.90000   -999.90000   -999.90000   -999.90000   -999.90000   -999.90000   -999.90000   -999.90000   -999.90000   -999.90000    376.56100    366.17700    297.47400    228.19300    173.75700    195.50800    131.92200    137.66700    169.80000    234.62500    191.41800    129.28800    188.61100    215.96900    115.02500    158.35700    188.19900    251.33800    211.07300    185.43200    154.51800    144.56400     77.04700     74.58200     75.05700     75.83200     75.11000     77.69100     85.49600    102.76500    152.06400    207.34400    277.31900    251.06600    212.03300    201.18000    206.18000    230.78200    264.47100    287.75000    326.88600    326.88600    345.73800    377.32800    510.07000    648.89500   -999.90000   -999.90000   -999.90000   -999.90000   -999.90000   -999.90000   -999.90000   -999.90000   -999.90000   -999.90000   -999.90000   -999.90000   -999.90000   -999.90000   -999.90000   -999.90000   -999.90000   -999.90000   -999.90000   -999.90000   -999.90000   -999.90000   -999.90000   -999.90000   -999.90000   -999.90000   -999.90000   -999.90000   -999.90000   -999.90000   -999.90000   -999.90000   -999.90000   -999.90000   -999.90000
-999.90000   -999.90000   -999.90000   -999.90000   -999.90000   -999.90000   -999.90000   -999.90000   -999.90000   -999.90000   -999.90000   -999.90000   -999.90000   -999.90000   -999.90000   -999.90000   -999.90000   -999.90000   -999.90000   -999.90000   -999.90000   -999.90000   -999.90000   -999.90000   -999.90000   -999.90000   -999.90000   -999.90000   -999.90000   -999.90000   -999.90000   -999.90000   -999.90000   -999.90000   -999.90000   -999.90000   -999.90000   -999.90000   -999.90000   -999.90000   -999.90000   -999.90000   -999.90000   -999.90000   -999.90000    318.13000    237.21000    258.66900    222.72400    179.67500    139.93200    133.09200    158.89200    185.50200    232.86500    148.62100    178.11000    251.25400    168.83200    115.71700    131.23600    178.25800    232.87900    153.01300    139.96700    101.68400     97.42700     97.42700     85.70300     75.06100     78.26400     77.62400     78.97400     87.56500    111.31700    144.96100    182.72100    232.20900    329.73800    280.46700    236.92200    273.69400    282.88700    326.39200    406.93300    434.26400    435.85000    476.88200    503.37800    581.29500   -999.90000   -999.90000   -999.90000   -999.90000   -999.90000   -999.90000   -999.90000   -999.90000   -999.90000   -999.90000   -999.90000   -999.90000   -999.90000   -999.90000   -999.90000   -999.90000   -999.90000   -999.90000   -999.90000   -999.90000   -999.90000   -999.90000   -999.90000   -999.90000   -999.90000   -999.90000   -999.90000   -999.90000   -999.90000   -999.90000   -999.90000   -999.90000   -999.90000   -999.90000   -999.90000   -999.90000
-999.90000   -999.90000   -999.90000   -999.90000   -999.90000   -999.90000   -999.90000   -999.90000   -999.90000   -999.90000   -999.90000   -999.90000   -999.90000   -999.90000   -999.90000   -999.90000   -999.90000   -999.90000   -999.90000   -999.90000   -999.90000   -999.90000   -999.90000   -999.90000   -999.90000   -999.90000   -999.90000   -999.90000   -999.90000   -999.90000   -999.90000   -999.90000   -999.90000   -999.90000   -999.90000   -999.90000   -999.90000   -999.90000   -999.90000   -999.90000   -999.90000   -999.90000   -999.90000   -999.90000   -999.90000    290.76800    224.88600    180.77800    180.77800    156.41100    144.44300    183.52300    190.78800    242.86200    192.24700    167.98100    247.45900    211.71300    137.44200    157.26400    144.72500    174.48300    234.14600    157.11300    157.11300    197.07800    137.41600    169.08800    158.71800     77.21100     80.48100     80.48200     82.21400     85.00800    133.57800    176.71900    273.13200    268.13800    234.99700    188.32000    153.57100    161.35500    173.48300    252.08700    298.63000    327.19600    358.44900    456.05900    548.00900    582.58500   -999.90000   -999.90000   -999.90000   -999.90000   -999.90000   -999.90000   -999.90000   -999.90000   -999.90000   -999.90000   -999.90000   -999.90000   -999.90000   -999.90000   -999.90000    476.24000    405.79100    461.78800   -999.90000   -999.90000   -999.90000   -999.90000   -999.90000   -999.90000   -999.90000   -999.90000   -999.90000   -999.90000   -999.90000   -999.90000   -999.90000   -999.90000   -999.90000   -999.90000   -999.90000   -999.90000
-999.90000   -999.90000   -999.90000   -999.90000   -999.90000   -999.90000   -999.90000   -999.90000   -999.90000   -999.90000   -999.90000   -999.90000   -999.90000   -999.90000   -999.90000   -999.90000   -999.90000   -999.90000   -999.90000   -999.90000   -999.90000   -999.90000   -999.90000   -999.90000   -999.90000   -999.90000   -999.90000   -999.90000   -999.90000   -999.90000   -999.90000   -999.90000   -999.90000   -999.90000   -999.90000   -999.90000   -999.90000   -999.90000   -999.90000   -999.90000   -999.90000   -999.90000   -999.90000   -999.90000   -999.90000    344.09600    282.40700    242.99000    190.37900    156.41100    163.13400    199.10100    237.36300    260.35000    185.60600    232.39000    248.28900    176.12600    188.97500    211.93800    186.65200    233.34000    225.91400    210.93500    291.31000    289.00700    201.61500    140.97200    140.98200     79.49200     82.42000     81.42700     82.90400     87.19200     96.94500    145.96300    160.59100    151.07800    125.09900    125.09900    137.69800    161.35500    258.19100    344.28300    365.95300    407.84300    408.56100    478.86500    460.07400    559.43500    623.47800    585.57000    513.49300    634.32100    639.85600    643.24300    626.01600   -999.90000    626.36500   -999.90000   -999.90000   -999.90000    524.45700    480.51400    388.51300    403.47300    326.90100    357.48300    434.53000    458.94200   -999.90000   -999.90000   -999.90000   -999.90000    629.77400   -999.90000   -999.90000   -999.90000   -999.90000    661.47900   -999.90000   -999.90000   -999.90000   -999.90000   -999.90000   -999.90000
-999.90000   -999.90000   -999.90000   -999.90000   -999.90000   -999.90000   -999.90000   -999.90000   -999.90000   -999.90000   -999.90000   -999.90000   -999.90000   -999.90000   -999.90000   -999.90000   -999.90000   -999.90000   -999.90000   -999.90000   -999.90000   -999.90000   -999.90000   -999.90000   -999.90000   -999.90000   -999.90000   -999.90000   -999.90000   -999.90000   -999.90000   -999.90000   -999.90000   -999.90000   -999.90000   -999.90000   -999.90000   -999.90000   -999.90000   -999.90000   -999.90000   -999.90000   -999.90000   -999.90000   -999.90000    396.72200    287.34400    214.37000    184.85200    197.13000    236.41000    214.24500    310.66400    248.89700    258.85100    300.98500    272.93200    273.49200    279.74100    253.63500    306.81500    277.69200    201.47000    185.63800    200.29800    271.21600    153.08900    105.92700     89.52500     81.64000     84.13200     85.14100     85.07300     93.78600     94.46400     96.94900    101.53200    112.85700    125.77300    143.07700    176.50400    152.73600    177.67100    219.22000    247.99100    336.82700    393.17700    402.19400    461.05300    529.49400    497.87500    419.26300    427.50200    557.46300    506.30500    490.88100    450.81400    527.60000    456.75400    534.87100    579.71200    538.66000    406.58200    347.48200    322.15600    326.69600    275.93800    315.79300    334.27000    399.84800   -999.90000   -999.90000   -999.90000    545.15100    486.81200    554.64100    635.66900    585.40700    508.03500    532.34000    648.76800   -999.90000   -999.90000   -999.90000   -999.90000   -999.90000
-999.90000   -999.90000   -999.90000   -999.90000   -999.90000   -999.90000   -999.90000   -999.90000   -999.90000   -999.90000   -999.90000   -999.90000   -999.90000   -999.90000   -999.90000   -999.90000   -999.90000   -999.90000   -999.90000   -999.90000   -999.90000   -999.90000   -999.90000   -999.90000   -999.90000   -999.90000   -999.90000   -999.90000   -999.90000   -999.90000   -999.90000   -999.90000   -999.90000   -999.90000   -999.90000   -999.90000   -999.90000   -999.90000   -999.90000   -999.90000   -999.90000   -999.90000   -999.90000   -999.90000   -999.90000   -999.90000    331.49500    282.03000    224.66900    228.66500    305.29900    315.46400    323.46500    318.21800    288.80900    231.24900    218.21900    256.06000    253.25600    234.94900    288.16800    293.36700    233.95200    183.24600    136.10500    136.10200    104.55200    104.54800     85.88100     83.55800     86.31700     88.32600     90.15100    120.59500    157.90300    151.03900    160.24300    191.42600    209.16500    243.73300    266.93000    268.41000    285.54200    283.59000    350.28700    407.05600    411.30900    430.99500    452.62900    503.68600    461.96200    347.82700    415.04100    516.47800    422.75100    367.28500    356.97400    380.25500    348.89100    434.28600    448.50000    494.12200    435.80900    325.70400    266.91400    255.33800    265.96300    297.70700    349.74100    427.64100    501.56300    489.85000    444.38700    470.74700    401.57100    472.96700    565.24000    551.20500    439.60000    479.61300    541.14800    584.82300   -999.90000   -999.90000   -999.90000   -999.90000
-999.90000   -999.90000   -999.90000   -999.90000   -999.90000   -999.90000   -999.90000   -999.90000   -999.90000   -999.90000   -999.90000   -999.90000   -999.90000   -999.90000   -999.90000   -999.90000   -999.90000   -999.90000   -999.90000   -999.90000   -999.90000   -999.90000   -999.90000   -999.90000   -999.90000   -999.90000   -999.90000   -999.90000   -999.90000   -999.90000   -999.90000   -999.90000   -999.90000   -999.90000   -999.90000   -999.90000   -999.90000   -999.90000   -999.90000   -999.90000   -999.90000   -999.90000   -999.90000   -999.90000   -999.90000   -999.90000    401.77800    293.84200    326.37300    320.46100    367.84500    317.00700    239.91600    248.09700    280.52800    231.34200    185.49200    171.16800    210.37200    174.05600    170.36700    190.28600    179.39800    122.37500    119.21800    119.21000    119.21000    129.76700     85.88100     87.52900     91.38700    104.72600     96.39400     96.48900    100.29200    106.48200    113.46400    186.55000    201.96500    202.62100    180.49600    232.16500    259.83800    270.26400    297.10300    272.45700    260.83200    283.25700    353.66700    438.04700    451.44900    329.07300    348.19400    448.37400    453.89000    382.27000    320.10500    289.06700    303.01600    351.66700    370.96500    384.71400    397.98900    326.07200    268.77100    240.95300    294.03200    359.68100    413.95300    505.44400    439.88300    356.87600    377.68300    450.62400    343.04000    438.75000    431.33200    438.39500    356.39700    386.78700    475.84500    476.17000    524.26400   -999.90000   -999.90000   -999.90000
-999.90000   -999.90000   -999.90000   -999.90000   -999.90000   -999.90000   -999.90000   -999.90000   -999.90000   -999.90000   -999.90000   -999.90000   -999.90000   -999.90000   -999.90000   -999.90000   -999.90000   -999.90000   -999.90000   -999.90000   -999.90000   -999.90000   -999.90000   -999.90000   -999.90000   -999.90000   -999.90000   -999.90000   -999.90000   -999.90000   -999.90000   -999.90000   -999.90000   -999.90000   -999.90000   -999.90000   -999.90000   -999.90000   -999.90000   -999.90000   -999.90000   -999.90000   -999.90000   -999.90000   -999.90000   -999.90000    482.93500    410.36400    428.12800    327.41800    262.49100    223.80600    212.86000    192.56500    216.66600    223.74300    218.74300    180.02200    139.56700    133.04600    133.04500    122.37500    122.37500    153.89700    225.15200    193.00400    212.57600     96.06900     87.55000    101.76000    109.18200    154.13100    113.14000    141.71000    125.65300    127.52900    113.46400    113.82800    129.07100    132.01900    132.01900    152.28300    152.28300    152.93500    161.37200    173.70500    182.04800    256.19900    335.61500    374.37900    338.55900    277.83600    399.10700    465.94600    516.14000    463.66500    391.61500    305.07700    254.21600    269.17000    323.20300    288.98900    321.79200    276.48000    236.88300    267.02100    329.43200    322.68000    395.52500    476.82600    395.11000    309.46300    334.62300    414.33400    309.54400    394.92800    373.08400    338.20600    314.93500    395.81700    381.52600    441.04100    549.42900   -999.90000   -999.90000   -999.90000
-999.90000   -999.90000   -999.90000   -999.90000   -999.90000   -999.90000   -999.90000   -999.90000   -999.90000   -999.90000   -999.90000   -999.90000   -999.90000   -999.90000   -999.90000   -999.90000   -999.90000   -999.90000   -999.90000   -999.90000   -999.90000   -999.90000   -999.90000   -999.90000   -999.90000   -999.90000   -999.90000   -999.90000   -999.90000   -999.90000   -999.90000   -999.90000   -999.90000   -999.90000   -999.90000   -999.90000   -999.90000   -999.90000   -999.90000   -999.90000   -999.90000   -999.90000   -999.90000   -999.90000   -999.90000   -999.90000   -999.90000   -999.90000    421.38100    313.86400    308.67000    298.63900    265.75200    219.97900    179.67100    171.21800    157.14800    150.77800    177.97600    169.76000    175.32600    151.25000    213.21800    234.33800    311.36500    269.56600    212.58200     96.06900     92.76100    189.12700    183.76700    170.50800    131.88800    215.26100    245.52800    187.27300    187.45700    180.80600    133.28000    133.28000    155.81500    153.01400    188.66600    198.61300    244.83200    291.72900    254.26700    204.39200    212.65400    225.10200    248.13400    321.77500    399.96900    501.77500    488.70800    389.91000    335.92400    327.00900    289.28800    242.24400    242.22500    283.85400    264.80400    237.44200    232.73600    304.26900    310.14100    327.69600    404.88400    462.68700    395.11000    297.95400    270.16300    270.16300    270.16300    271.35400    271.35400    296.45100    296.45100    308.62600    399.42200    525.03400   -999.90000   -999.90000   -999.90000   -999.90000
-999.90000   -999.90000   -999.90000   -999.90000   -999.90000   -999.90000   -999.90000   -999.90000   -999.90000   -999.90000   -999.90000   -999.90000   -999.90000   -999.90000   -999.90000   -999.90000   -999.90000   -999.90000   -999.90000   -999.90000   -999.90000   -999.90000   -999.90000   -999.90000   -999.90000   -999.90000   -999.90000   -999.90000   -999.90000   -999.90000   -999.90000   -999.90000   -999.90000   -999.90000   -999.90000   -999.90000   -999.90000   -999.90000   -999.90000   -999.90000   -999.90000   -999.90000   -999.90000   -999.90000   -999.90000   -999.90000   -999.90000   -999.90000    478.46000    422.76700    330.07100    271.07300    250.77800    240.55600    263.46600    245.84200    217.14000    183.69900    229.06700    216.41500    163.55200    171.80300    275.67000    303.44200    352.04300    221.43500    119.25100     96.08800     92.76300    226.14500    286.15600    237.02400    163.84700    198.67500    301.29100    288.98500    320.82000    259.46600    189.84400    186.04000    257.18100    219.89500    253.39100    269.83400    357.74000    387.69700    368.34000    312.80500    357.26400    332.30900    368.07200    432.86500    503.72500    483.88500    417.96400    354.93500    286.36200    255.92300    318.51200    303.01000    242.22500    219.73700    219.73700    207.03500    270.85000    321.54700    258.30800    361.54400    441.00800    358.14700    280.54800    241.92400    270.16300    303.75400    346.03100    333.99500    369.43900    422.34400    406.11500    311.87100    369.43700    447.52600    596.71400   -999.90000   -999.90000   -999.90000
-999.90000   -999.90000   -999.90000   -999.90000   -999.90000   -999.90000   -999.90000   -999.90000   -999.90000   -999.90000   -999.90000   -999.90000   -999.90000   -999.90000   -999.90000   -999.90000   -999.90000   -999.90000   -999.90000   -999.90000   -999.90000   -999.90000   -999.90000   -999.90000   -999.90000   -999.90000   -999.90000   -999.90000   -999.90000   -999.90000   -999.90000   -999.90000   -999.90000   -999.90000   -999.90000   -999.90000   -999.90000   -999.90000   -999.90000   -999.90000   -999.90000   -999.90000   -999.90000   -999.90000   -999.90000   -999.90000   -999.90000   -999.90000    526.50600    394.65400    341.75100    388.19500    323.99700    350.94900    362.78600    301.68400    311.13600    230.76700    296.15200    228.07400    194.27100    202.31400    236.87900    270.51300    276.45900    202.36000     97.10000     94.34500     92.77300    162.90100    235.51500    310.14800    213.57200    217.39200    341.46500    389.68900    449.50800    356.34700    322.58600    272.67200    239.24100    216.54100    195.70300    263.67900    348.99000    270.73000    388.08400    414.14000    405.25600    384.92600    385.68100    456.86800    439.88800    409.49200    312.89400    265.14300    249.36900    249.36900    348.32800    303.18700    291.86000    270.93300    267.88400    207.02400    272.07600    237.29000    292.69400    363.41900    344.24000    273.68700    237.90300    295.73400    413.68500    386.27900    460.28900    440.61300    498.30000    462.44800    352.45300    380.17500    502.89500    537.62200    568.77200    677.30900   -999.90000   -999.90000
-999.90000   -999.90000   -999.90000   -999.90000   -999.90000   -999.90000   -999.90000   -999.90000   -999.90000   -999.90000   -999.90000   -999.90000   -999.90000   -999.90000   -999.90000   -999.90000   -999.90000   -999.90000   -999.90000   -999.90000   -999.90000   -999.90000   -999.90000   -999.90000   -999.90000   -999.90000   -999.90000   -999.90000   -999.90000   -999.90000   -999.90000   -999.90000   -999.90000   -999.90000   -999.90000   -999.90000   -999.90000   -999.90000   -999.90000   -999.90000   -999.90000   -999.90000   -999.90000   -999.90000   -999.90000   -999.90000   -999.90000   -999.90000    621.11300    493.84100    464.68700    470.20800    416.50000    385.92200    361.48100    382.38200    354.78500    345.75200    356.05900    297.98300    268.42600    268.14700    303.42500    225.85100    165.22100    132.50700    101.63200     96.84500     96.87100    187.19600    263.19300    277.24600    285.32800    301.27500    250.79100    249.66900    304.56700    254.60800    268.33700    239.20500    133.66200    133.66200    135.51700    190.79300    180.38500    203.92300    266.37200    300.32400    278.28400    236.74000    269.15700    349.91500    344.82400    367.07900    265.76800    215.33200    210.99100    297.08800    330.00800    335.18100    276.42000    273.12400    270.96300    195.41200    204.35000    218.36500    261.00700    222.38600    222.38600    237.90300    258.78900    345.54300    428.88800    507.31100    559.97700    559.90800    485.63600    370.33200    370.32000    430.61100    505.01200    625.96500    725.09600    808.61700   -999.90000   -999.90000
-999.90000   -999.90000   -999.90000   -999.90000   -999.90000   -999.90000   -999.90000   -999.90000   -999.90000   -999.90000   -999.90000   -999.90000   -999.90000   -999.90000   -999.90000   -999.90000   -999.90000   -999.90000   -999.90000   -999.90000   -999.90000   -999.90000   -999.90000   -999.90000   -999.90000   -999.90000   -999.90000   -999.90000   -999.90000   -999.90000   -999.90000   -999.90000   -999.90000   -999.90000   -999.90000   -999.90000   -999.90000   -999.90000   -999.90000   -999.90000   -999.90000   -999.90000   -999.90000   -999.90000   -999.90000   -999.90000   -999.90000   -999.90000   -999.90000   -999.90000    653.32800    539.67300    449.84400    396.51100    314.09600    252.26000    282.64500    299.13100    304.38300    338.90000    301.66800    325.50600    359.37800    275.45100    192.02400    165.34200    109.48300     99.80300     96.87700    100.20600    166.42400    215.22800    228.94100    296.38200    243.81100    162.15900    164.47700    143.42900    125.16600    125.17200    125.18100    133.57600    133.67600    133.67600    134.45600    136.74500    143.83500    143.91000    149.67700    149.68200    149.68200    231.98700    286.89100    292.17800    267.98800    194.09800    242.18200    281.26200    231.92200    228.84700    198.46900    191.71900    191.73000    212.60300    204.35000    218.36500    222.38600    253.24600    277.81500    385.80100    334.27500    311.88300    456.88600    536.48200    593.99100    512.40000    388.79000    370.33700    427.16200    546.40800    580.79000    645.05200    715.59200    831.85100   -999.90000   -999.90000
-999.90000   -999.90000   -999.90000   -999.90000   -999.90000   -999.90000   -999.90000   -999.90000   -999.90000   -999.90000   -999.90000   -999.90000   -999.90000   -999.90000   -999.90000   -999.90000   -999.90000   -999.90000   -999.90000   -999.90000   -999.90000   -999.90000   -999.90000   -999.90000   -999.90000   -999.90000   -999.90000   -999.90000   -999.90000   -999.90000   -999.90000   -999.90000   -999.90000   -999.90000   -999.90000   -999.90000   -999.90000   -999.90000   -999.90000   -999.90000   -999.90000   -999.90000   -999.90000   -999.90000   -999.90000   -999.90000   -999.90000   -999.90000   -999.90000   -999.90000   -999.90000    682.02300    587.44400    510.66200    406.08500    268.76000    206.14000    197.09500    197.09500    233.93400    222.51000    229.48600    302.25500    285.51100    237.16100    165.34200    124.34800    103.43500    101.31000    100.21500    100.61600    104.53900    124.46300    171.48100    237.38900    114.80200    114.80200    116.73000    131.79500    131.81500    148.67600    148.67600    173.85100    171.99400    163.69300    147.06700    153.92700    153.94100    167.72500    160.86000    149.68200    155.07200    165.14100    165.14400    165.15400    165.15500    174.66800    173.26200    173.27800    173.40400    191.71800    191.71900    266.73500    302.33000    341.92800    277.82300    234.69500    353.62900    385.03200    444.92500    370.16600    311.88300    385.59400    480.29900    538.17300    434.59500    434.59500    510.35400    427.16200    429.25500    554.06600    681.64600    782.95200    872.49800   -999.90000   -999.90000
-999.90000   -999.90000   -999.90000   -999.90000   -999.90000   -999.90000   -999.90000   -999.90000   -999.90000   -999.90000   -999.90000   -999.90000   -999.90000   -999.90000   -999.90000   -999.90000   -999.90000   -999.90000   -999.90000   -999.90000   -999.90000   -999.90000   -999.90000   -999.90000   -999.90000   -999.90000   -999.90000   -999.90000   -999.90000   -999.90000   -999.90000   -999.90000   -999.90000   -999.90000   -999.90000   -999.90000   -999.90000   -999.90000   -999.90000   -999.90000   -999.90000   -999.90000   -999.90000   -999.90000   -999.90000   -999.90000   -999.90000   -999.90000   -999.90000   -999.90000   -999.90000    574.47000    465.94500    374.87400    317.54400    294.54800    298.19800    239.34000    194.47300    161.19700    156.09000    182.57200    213.90800    204.24400    167.69800    129.85400    115.17800    118.21900    113.62100    112.44400    104.92400    104.55200    105.43100    114.29400    112.50500    112.50500    125.37000    187.59000    169.72500    237.73500    201.66100    184.37000    255.55600    264.34800    201.37800    184.44800    294.21900    232.56600    199.30600    241.13600    212.76400    188.71200    210.63300    168.05000    165.15400    173.26200    173.26200    224.10300    224.10300    251.73800    204.10200    325.48500    394.25500    416.75700    414.54900    329.18500    234.89800    288.84600    342.50200    434.67600    477.99300    388.77900    376.66500    479.35200    450.56300    504.78400    594.09000    624.76000    594.28400    507.44500    490.33300    572.25100    659.15800    790.95600   -999.90000   -999.90000
-999.90000   -999.90000   -999.90000   -999.90000   -999.90000   -999.90000   -999.90000   -999.90000   -999.90000   -999.90000   -999.90000   -999.90000   -999.90000   -999.90000   -999.90000   -999.90000   -999.90000   -999.90000   -999.90000   -999.90000   -999.90000   -999.90000   -999.90000   -999.90000   -999.90000   -999.90000   -999.90000   -999.90000   -999.90000   -999.90000   -999.90000   -999.90000   -999.90000   -999.90000   -999.90000   -999.90000   -999.90000   -999.90000   -999.90000   -999.90000   -999.90000   -999.90000   -999.90000   -999.90000   -999.90000   -999.90000   -999.90000   -999.90000   -999.90000   -999.90000   -999.90000    531.02300    455.84100    400.77900    354.05400    337.77100    337.77100    321.33000    225.11500    210.29900    197.58600    156.09000    141.69500    133.33400    129.86600    140.66000    160.85600    189.24400    169.05800    171.21100    130.08000    144.51400    105.43200    106.56400    112.50200    145.55900    147.11700    215.07400    267.16400    276.88300    294.90100    184.37000    306.53500    373.65600    242.21200    195.73700    320.56700    255.11100    276.60500    276.60500    241.72500    248.63500    322.20800    213.12500    197.08300    304.40200    295.08600    340.40100    366.82300    298.35000    204.10200    274.12800    322.01700    412.41600    453.50900    351.43200    266.71000    294.69800    322.01600    399.05600    511.73900    446.06300    393.97900    522.40900    494.00300    587.08500    677.10800    782.76000    714.37100    590.75800    520.72800    636.24100    740.18000    881.54700    975.48800   -999.90000
-999.90000   -999.90000   -999.90000   -999.90000   -999.90000   -999.90000   -999.90000   -999.90000   -999.90000   -999.90000   -999.90000   -999.90000   -999.90000   -999.90000   -999.90000   -999.90000   -999.90000   -999.90000   -999.90000   -999.90000   -999.90000   -999.90000   -999.90000   -999.90000   -999.90000   -999.90000   -999.90000   -999.90000   -999.90000   -999.90000   -999.90000   -999.90000   -999.90000   -999.90000   -999.90000   -999.90000   -999.90000   -999.90000   -999.90000   -999.90000   -999.90000   -999.90000   -999.90000   -999.90000   -999.90000   -999.90000   -999.90000   -999.90000   -999.90000   -999.90000    659.82000    578.50300    539.35700    529.88200    474.25000    366.94600    307.06300    266.34600    331.01500    273.06400    182.43400    161.62200    149.50200    180.35400    186.65600    222.75900    220.13900    243.92500    144.47500    114.58500    114.58100    114.58100    108.13800    121.18900    182.92800    244.86200    192.56600    189.32900    272.20800    355.34700    330.80700    232.89700    273.64300    368.83600    249.86300    209.80500    346.06700    374.99800    423.38500    412.37600    312.99000    399.38700    331.62900    235.01600    197.09900    269.91600    332.97500    421.96700    328.43700    230.49100    230.49100    302.97500    299.38300    406.46900    495.72500    375.41700    266.72400    354.15800    415.03700    430.19400    477.29000    458.56700    488.87100    613.85900    594.50900    621.85700    763.94300    854.39600    743.46500    708.55500    599.66400    653.42700    771.90700    868.89900    965.95600   1097.00400
-999.90000   -999.90000   -999.90000   -999.90000   -999.90000   -999.90000   -999.90000   -999.90000   -999.90000   -999.90000   -999.90000   -999.90000   -999.90000   -999.90000   -999.90000   -999.90000   -999.90000   -999.90000   -999.90000   -999.90000   -999.90000   -999.90000   -999.90000   -999.90000   -999.90000   -999.90000   -999.90000   -999.90000   -999.90000   -999.90000   -999.90000   -999.90000   -999.90000   -999.90000   -999.90000   -999.90000   -999.90000   -999.90000   -999.90000   -999.90000   -999.90000   -999.90000   -999.90000   -999.90000   -999.90000   -999.90000   -999.90000   -999.90000   -999.90000    471.98400    555.46800    638.10800    611.37400    607.37600    558.81900    495.70300    439.44900    370.70500    326.42300    261.43800    246.00600    190.46900    203.26200    242.75800    238.86000    309.81600    294.06000    205.20900    119.92100    125.74500    139.52500    127.15200    123.33500    159.93500    220.95800    318.84700    269.95600    222.12000    244.47500    319.62100    382.15100    282.58900    268.34300    356.22700    319.86300    243.58600    291.13700    399.91500    443.35900    390.88700    388.74800    373.46100    314.35000    209.39300    263.75200    249.85600    355.28400    434.75300    343.12500    230.49100    321.82400    428.38500    421.20300    468.61900    466.81600    380.79600    284.94900    315.13400    315.13400    337.63100    414.92200    543.34900    604.12900    703.89200    720.19800    643.27900    792.50000    939.54400    938.68700    805.85500    688.30600    785.05200    848.76100    961.25700   -999.90000   -999.90000
-999.90000   -999.90000   -999.90000   -999.90000   -999.90000   -999.90000   -999.90000   -999.90000   -999.90000   -999.90000   -999.90000   -999.90000   -999.90000   -999.90000   -999.90000   -999.90000   -999.90000   -999.90000   -999.90000   -999.90000   -999.90000   -999.90000   -999.90000   -999.90000   -999.90000   -999.90000   -999.90000   -999.90000   -999.90000   -999.90000   -999.90000   -999.90000   -999.90000   -999.90000   -999.90000   -999.90000   -999.90000   -999.90000   -999.90000   -999.90000   -999.90000   -999.90000   -999.90000   -999.90000   -999.90000   -999.90000    583.19000    544.32000    432.91400    375.52900    448.50400    497.02200    488.18500    496.46700    521.26800    569.99600    557.03800    478.62700    398.18300    330.02500    288.99300    253.04700    300.85700    341.30400    306.57300    217.12900    173.71400    173.70500    122.12500    125.74500    231.24200    274.35800    240.93700    261.04400    301.66800    373.42600    349.61200    320.30700    334.23600    403.47100    458.37100    379.56400    379.56400    411.10700    392.06900    343.15500    367.63800    442.36300    398.82200    317.12700    279.25500    247.00200    225.73000    232.29100    346.17900    285.59400    365.66900    392.71500    271.92500    247.69400    374.45500    473.72000    488.22300    553.69100    510.01500    392.49800    303.88200    444.19100    356.54600    347.82300    440.72700    573.36000    666.87700    796.19400    861.84500    767.45200    784.78700    887.97000   1003.11600    893.76800    824.34600    850.69400   1004.67200   -999.90000   -999.90000   -999.90000
-999.90000   -999.90000   -999.90000   -999.90000   -999.90000   -999.90000   -999.90000   -999.90000   -999.90000   -999.90000   -999.90000   -999.90000   -999.90000   -999.90000   -999.90000   -999.90000   -999.90000   -999.90000   -999.90000   -999.90000   -999.90000   -999.90000   -999.90000   -999.90000   -999.90000   -999.90000   -999.90000   -999.90000   -999.90000   -999.90000   -999.90000   -999.90000   -999.90000   -999.90000   -999.90000   -999.90000   -999.90000   -999.90000   -999.90000   -999.90000   -999.90000   -999.90000   -999.90000   -999.90000    505.66300    459.74900    429.67600    386.26000    328.83100    341.82900    364.42300    402.67000    425.99300    368.28400    408.48900    490.83200    604.30900    593.51300    515.45200    412.34000    373.54000    314.33100    435.75500    468.87300    399.66900    292.97000    213.36100    126.96500    122.24900    128.20700    151.78500    210.30000    299.13600    352.11000    324.23800    319.85300    279.78600    324.65800    355.25300    406.83400    479.87900    540.32500    508.34700    508.34700    517.49700    500.50200    468.17200    580.06000    498.77300    417.54000    357.87500    284.35400    254.49400    245.35600    363.86000    378.94600    423.41100    355.09500    303.63200    274.18600    304.94000    351.89200    435.71300    530.44500    553.46900    435.54700    323.87600    440.65700    368.73400    487.92400    503.36100    528.52500    614.91700    726.67900    864.56000    907.32100    949.96300    999.16700   1056.34800    979.91600   1009.02400    992.48300   -999.90000   -999.90000   -999.90000   -999.90000
-999.90000   -999.90000   -999.90000   -999.90000   -999.90000   -999.90000   -999.90000   -999.90000   -999.90000   -999.90000   -999.90000   -999.90000   -999.90000   -999.90000   -999.90000   -999.90000   -999.90000   -999.90000   -999.90000   -999.90000   -999.90000   -999.90000   -999.90000   -999.90000   -999.90000   -999.90000   -999.90000   -999.90000   -999.90000   -999.90000   -999.90000   -999.90000   -999.90000   -999.90000   -999.90000   -999.90000   -999.90000   -999.90000   -999.90000   -999.90000   -999.90000    471.34900    460.52300    429.78800    398.78500    349.18300    335.20600    334.56400    269.05500    302.51000    291.94000    301.71600    330.77700    302.52900    372.53200    458.13500    478.16400    590.30200    587.56300    529.43300    463.41500    412.52200    355.41000    312.57600    272.49500    221.25000    212.26600    141.14800    126.96500    128.20700    203.64300    180.71600    181.07900    201.59700    212.84000    243.69300    323.72100    403.02800    457.28700    475.16000    485.20200    474.69200    473.55500    530.00100    438.98200    547.21200    564.42700    663.45800    527.30900    381.53800    311.26700    294.51200    328.38500    281.47800    352.29100    480.70400    514.71500    415.60100    363.08000    298.34100    370.77500    458.46100    521.37900    636.95900    551.86400    436.10500    347.87300    386.49700    448.24600    542.91500    643.20300    623.47100    698.45900    764.22200    897.81300   -999.90000   -999.90000   -999.90000   -999.90000   -999.90000   -999.90000   -999.90000   -999.90000   -999.90000   -999.90000   -999.90000
-999.90000   -999.90000   -999.90000   -999.90000   -999.90000   -999.90000   -999.90000   -999.90000   -999.90000   -999.90000   -999.90000   -999.90000   -999.90000   -999.90000   -999.90000   -999.90000   -999.90000   -999.90000   -999.90000   -999.90000   -999.90000   -999.90000   -999.90000   -999.90000   -999.90000   -999.90000   -999.90000   -999.90000   -999.90000   -999.90000   -999.90000   -999.90000   -999.90000   -999.90000   -999.90000   -999.90000   -999.90000   -999.90000   -999.90000   -999.90000    461.57200    377.99300    398.10300    323.01700    315.73300    288.89100    262.22800    251.44800    236.13600    236.13600    228.11700    246.73900    249.47200    293.71500    360.14700    332.51500    442.54700    433.70900    541.83200    611.65300    564.63500    473.86800    391.44700    350.02200    309.46100    246.52900    191.71000    151.99700    135.23100    128.34400    131.79900    157.74500    228.57000    292.80400    317.98800    347.80700    378.90600    403.68600    350.36300    402.23500    326.49100    379.24300    440.39500    421.30000    364.55000    469.35900    561.29700    695.46000    587.67200    443.08100    341.76000    341.86900    341.11900    361.63500    351.22700    459.44700    573.20200    479.43100    335.04500    325.48200    437.74500    485.19800    580.93900    658.36600    587.12700    456.57400    350.68000    426.71800    509.40700    601.56900    621.87000    708.08800    789.14800    862.53400    943.75800   -999.90000   -999.90000   -999.90000   -999.90000   -999.90000   -999.90000   -999.90000   -999.90000   -999.90000   -999.90000   -999.90000
-999.90000   -999.90000   -999.90000   -999.90000   -999.90000   -999.90000   -999.90000   -999.90000   -999.90000   -999.90000   -999.90000   -999.90000   -999.90000   -999.90000   -999.90000   -999.90000   -999.90000   -999.90000   -999.90000   -999.90000   -999.90000   -999.90000   -999.90000   -999.90000   -999.90000   -999.90000   -999.90000   -999.90000   -999.90000   -999.90000   -999.90000   -999.90000   -999.90000   -999.90000   -999.90000   -999.90000   -999.90000   -999.90000   -999.90000    419.31700    369.42100    310.66300    287.23200    287.23200    287.23200    262.22800    299.49000    328.86400    285.48600    252.46200    284.04100    213.16400    246.18100    297.22000    269.30500    339.58700    343.59400    345.68300    426.86400    466.07400    557.80800    582.67600    525.64000    509.47200    428.72500    367.17800    287.34700    242.68900    228.76300    169.77600    132.21300    212.70300    157.74500    186.74000    194.36700    206.95900    213.93500    251.51000    236.28100    239.37900    257.01400    364.03200    407.43400    314.39900    350.25000    432.54200    530.38600    673.77900    547.47400    440.70700    409.50000    351.68000    384.15600    448.77600    369.46700    422.74400    549.72600    418.32300    335.04500    335.04500    485.97100    552.63700    610.74600    606.46200    509.90200    387.02000    387.01000    552.92500    534.92500    558.12000    643.51300    727.10000    822.71600    919.64500   -999.90000   -999.90000   -999.90000   -999.90000   -999.90000   -999.90000   -999.90000   -999.90000   -999.90000   -999.90000   -999.90000   -999.90000
-999.90000   -999.90000   -999.90000   -999.90000   -999.90000   -999.90000   -999.90000   -999.90000   -999.90000   -999.90000   -999.90000   -999.90000   -999.90000   -999.90000   -999.90000   -999.90000   -999.90000   -999.90000   -999.90000   -999.90000   -999.90000   -999.90000   -999.90000   -999.90000   -999.90000   -999.90000   -999.90000   -999.90000   -999.90000   -999.90000   -999.90000   -999.90000   -999.90000   -999.90000   -999.90000   -999.90000   -999.90000   -999.90000   -999.90000    366.98700    316.66000    316.66000    321.75200    402.82200    346.36000    284.09800    314.57800    355.46000    356.49400    331.32400    268.45600    228.19800    201.20900    236.72700    303.61800    314.33900    240.93400    324.60700    300.72100    365.82100    411.95900    438.14000    484.19600    468.96700    393.22000    319.86200    251.72300    155.74000    139.41800    136.44000    132.21300    227.36100    260.47600    229.18800    285.82000    285.95600    279.58100    213.93500    236.28100    239.37900    239.37900    242.09600    282.82000    282.82000    398.12800    500.43700    565.43400    660.40900    578.20800    515.85200    479.57800    404.45900    426.30400    495.65400    486.84800    485.57000    539.02500    427.64000    366.79800    339.98500    469.97300    548.90500    598.19700    593.35400    479.13900    387.02800    466.44500    559.57500    642.55900    687.80200    743.35600    841.15900    903.35200   -999.90000   -999.90000   -999.90000   -999.90000   -999.90000   -999.90000   -999.90000   -999.90000   -999.90000   -999.90000   -999.90000   -999.90000   -999.90000
-999.90000   -999.90000   -999.90000   -999.90000   -999.90000   -999.90000   -999.90000   -999.90000   -999.90000   -999.90000   -999.90000   -999.90000   -999.90000   -999.90000   -999.90000   -999.90000   -999.90000   -999.90000   -999.90000   -999.90000   -999.90000   -999.90000   -999.90000   -999.90000   -999.90000   -999.90000   -999.90000   -999.90000   -999.90000   -999.90000   -999.90000   -999.90000   -999.90000   -999.90000   -999.90000   -999.90000   -999.90000   -999.90000   -999.90000    389.74500    340.01500    371.71100    344.47400    401.54800    368.63600    320.49700    350.56000    322.68900    298.80400    254.96600    254.96000    273.62000    243.23800    193.60300    193.59300    233.58500    237.64700    274.35800    246.64000    285.82900    315.08900    322.25600    361.41600    347.47700    305.95000    221.04800    155.79200    155.74700    206.49800    174.92600    133.96300    191.09800    312.18300    327.18200    416.22400    471.61800    377.33700    269.18500    358.96400    357.65600    355.74600    308.67100    251.25700    329.59000    443.79100    533.29700    666.22300    693.63200    686.35200    628.30800    580.36200    545.68700    551.10600    541.47200    552.00600    536.80900    537.96200    494.70500    399.23700    398.83400    378.31000    415.40800    519.51400    543.62100    455.35700    404.01000    429.70300    486.98900    541.22100    642.84700    701.73800    806.91500    868.86300   -999.90000   -999.90000   -999.90000   -999.90000   -999.90000   -999.90000   -999.90000   -999.90000   -999.90000   -999.90000   -999.90000   -999.90000   -999.90000
-999.90000   -999.90000   -999.90000   -999.90000   -999.90000   -999.90000   -999.90000   -999.90000   -999.90000   -999.90000   -999.90000   -999.90000   -999.90000   -999.90000   -999.90000   -999.90000   -999.90000   -999.90000   -999.90000   -999.90000   -999.90000   -999.90000   -999.90000   -999.90000   -999.90000   -999.90000   -999.90000   -999.90000   -999.90000   -999.90000   -999.90000   -999.90000   -999.90000   -999.90000   -999.90000   -999.90000   -999.90000   -999.90000   -999.90000   -999.90000    402.10300    380.01800    381.61600    439.17800    362.39000    342.74400    388.70900    304.43700    298.80400    325.36900    320.67000    336.39800    302.92500    249.27500    193.59000    184.11100    178.24600    176.99200    176.99200    216.88300    242.10800    229.79700    231.91300    231.15400    200.48500    155.80700    155.80200    255.49900    265.53500    163.13500    136.94800    168.92900    289.93700    358.84500    408.11200    475.81800    402.98700    345.40100    406.66400    492.65900    476.48100    389.48200    319.52300    305.24000    443.43600    501.99200    535.76500    654.86800    698.71600    578.32500    501.25200    488.90900    500.87800    438.67000    455.05200    437.48900    527.61400    500.25700    488.67600    498.76400    482.89500    521.15000    456.09700    568.25900    511.38100    489.37200    548.35100    546.52600    498.59300    569.26600    701.74700    763.78700    878.41600   -999.90000   -999.90000   -999.90000   -999.90000   -999.90000   -999.90000   -999.90000   -999.90000   -999.90000   -999.90000   -999.90000   -999.90000   -999.90000
-999.90000   -999.90000   -999.90000   -999.90000   -999.90000   -999.90000   -999.90000   -999.90000   -999.90000   -999.90000   -999.90000   -999.90000   -999.90000   -999.90000   -999.90000   -999.90000   -999.90000   -999.90000   -999.90000   -999.90000   -999.90000   -999.90000   -999.90000   -999.90000   -999.90000   -999.90000   -999.90000   -999.90000   -999.90000   -999.90000   -999.90000   -999.90000   -999.90000   -999.90000   -999.90000   -999.90000   -999.90000   -999.90000   -999.90000   -999.90000    457.96500    441.59900    403.05700    459.79700    405.01500    389.49300    356.67700    304.44700    380.60500    365.51500    297.84700    249.50900    223.00900    222.99900    222.99300    215.97700    220.73100    194.22800    174.45400    168.90500    168.89500    161.59300    156.71700    155.81600    155.80700    168.95400    222.12700    278.55000    279.78200    187.87100    139.84800    160.08200    213.34900    226.19400    314.10600    477.03500    466.79300    439.23200    400.72200    556.53200    537.03100    424.39700    356.25000    328.26300    346.70600    421.58500    583.58100    635.66100    642.69800    549.30200    498.86400    430.38900    430.38900    444.81800    374.57800    457.20500    533.58300    622.73900    615.04800    595.51500    604.58000    550.41000    513.02900    614.49000    532.75600    593.96000    677.10600    672.94000    628.86500    579.81900    671.74300    807.29800    911.24900   -999.90000   -999.90000   -999.90000   -999.90000   -999.90000   -999.90000   -999.90000   -999.90000   -999.90000   -999.90000   -999.90000   -999.90000   -999.90000
-999.90000   -999.90000   -999.90000   -999.90000   -999.90000   -999.90000   -999.90000   -999.90000   -999.90000   -999.90000   -999.90000   -999.90000   -999.90000   -999.90000   -999.90000   -999.90000   -999.90000   -999.90000   -999.90000   -999.90000   -999.90000   -999.90000   -999.90000   -999.90000   -999.90000   -999.90000   -999.90000   -999.90000   -999.90000   -999.90000   -999.90000   -999.90000   -999.90000   -999.90000   -999.90000   -999.90000   -999.90000   -999.90000   -999.90000   -999.90000    509.39300    453.80600    464.22600    446.52800    389.50700    403.04800    334.04000    379.76400    412.06400    424.15100    321.90400    246.36800    274.81600    286.35900    293.13900    269.23600    197.59600    243.66900    247.64100    242.00200    234.17300    168.89500    231.18000    221.49700    247.03700    237.12100    349.27500    352.79300    266.80700    182.92700    142.82100    161.97600    261.19400    307.79100    380.22300    445.08500    498.12100    525.98000    501.65400    579.69000    552.01000    488.51000    466.15800    404.99800    420.13400    419.52500    520.51300    677.91900    641.14500    563.17700    490.68000    424.35700    379.29300    433.05400    369.29700    453.13100    546.24600    531.10500    537.22000    599.99400    640.91000    565.02000    627.34700    627.34000    622.67000    682.44500    759.03100    822.09400    801.72000    743.90500    705.20700    778.68800   -999.90000   -999.90000   -999.90000   -999.90000   -999.90000   -999.90000   -999.90000   -999.90000   -999.90000   -999.90000   -999.90000   -999.90000   -999.90000   -999.90000
-999.90000   -999.90000   -999.90000   -999.90000   -999.90000   -999.90000   -999.90000   -999.90000   -999.90000   -999.90000   -999.90000   -999.90000   -999.90000   -999.90000   -999.90000   -999.90000   -999.90000   -999.90000   -999.90000   -999.90000   -999.90000   -999.90000   -999.90000   -999.90000   -999.90000   -999.90000   -999.90000   -999.90000   -999.90000   -999.90000   -999.90000   -999.90000   -999.90000   -999.90000   -999.90000   -999.90000   -999.90000   -999.90000   -999.90000   -999.90000   -999.90000    514.10300    507.80000    461.26400    426.20900    414.54700    372.68200    407.69700    366.16800    329.25500    262.58400    293.80600    296.64400    261.80900    240.11500    209.81000    209.81000    286.15800    347.57200    359.37800    294.71300    333.09900    350.82700    324.85100    341.41800    335.05100    346.93500    271.42200    247.71900    210.67000    145.46000    160.68000    240.61200    283.66500    288.48700    328.00300    438.14700    408.25400    411.02900    501.77300    550.82400    591.09000    560.42700    507.02600    511.71500    511.18500    591.46700    597.58700    491.69100    445.21700    499.12900    457.44900    346.73000    354.17300    369.29700    463.64100    484.84300    484.86000    565.83900    629.23800    691.86100    697.03000    697.01100    738.91100    764.26100    781.50000    815.73200    821.11000    769.42000    833.65300    863.64200    854.31900   -999.90000   -999.90000   -999.90000   -999.90000   -999.90000   -999.90000   -999.90000   -999.90000   -999.90000   -999.90000   -999.90000   -999.90000   -999.90000   -999.90000
-999.90000   -999.90000   -999.90000   -999.90000   -999.90000   -999.90000   -999.90000   -999.90000   -999.90000   -999.90000   -999.90000   -999.90000   -999.90000   -999.90000   -999.90000   -999.90000   -999.90000   -999.90000   -999.90000   -999.90000   -999.90000   -999.90000   -999.90000   -999.90000   -999.90000   -999.90000   -999.90000   -999.90000   -999.90000   -999.90000   -999.90000   -999.90000   -999.90000   -999.90000   -999.90000   -999.90000   -999.90000   -999.90000   -999.90000   -999.90000   -999.90000   -999.90000    574.28500    533.52500    475.39200    420.88700    444.78400    387.33700    345.18800    281.39300    336.30600    385.34900    353.29700    305.57200    232.53500    232.53500    262.79600    276.39400    363.36700    378.64200    371.61200    348.14000    349.30800    294.14800    261.75600    260.33900    329.19600    283.06800    231.70900    161.20000    150.01700    167.23100    239.89000    276.19500    344.59900    347.34700    341.81300    315.67200    432.88200    405.63900    527.32100    524.86300    547.82900    583.51200    505.83800    445.34000    479.05900    495.15100    450.23900    370.50000    392.51400    338.04500    338.04500    397.25000    479.55100    478.24900    441.77800    483.47900    517.13300    576.45400    684.05300    726.97700    692.46700    705.77300    800.23000    739.50700    677.02400    679.71500    690.17500    780.36000    791.15700    880.20100   -999.90000   -999.90000   -999.90000   -999.90000   -999.90000   -999.90000   -999.90000   -999.90000   -999.90000   -999.90000   -999.90000   -999.90000   -999.90000   -999.90000
-999.90000   -999.90000   -999.90000   -999.90000   -999.90000   -999.90000   -999.90000   -999.90000   -999.90000   -999.90000   -999.90000   -999.90000   -999.90000   -999.90000   -999.90000   -999.90000   -999.90000   -999.90000   -999.90000   -999.90000   -999.90000   -999.90000   -999.90000   -999.90000   -999.90000   -999.90000   -999.90000   -999.90000   -999.90000   -999.90000   -999.90000   -999.90000   -999.90000   -999.90000   -999.90000   -999.90000   -999.90000   -999.90000   -999.90000   -999.90000   -999.90000   -999.90000   -999.90000    543.42600    499.47300    475.76100    447.28700    382.36900    317.09200    314.33900    372.69800    326.92300    291.75800    264.47100    272.91200    319.41200    365.71600    393.94400    353.10300    285.56600    266.74900    240.12800    232.21900    225.09800    186.66200    186.64800    186.64800    185.06200    168.24100    169.18600    154.03500    167.23300    229.65600    285.66000    247.42900    247.42900    287.21300    387.05100    374.79100    393.46700    507.52200    414.01100    414.10200    520.08900    454.32100    420.24400    365.54900    485.86100    467.91800    359.02300    338.03600    338.04500    399.14600    429.11300    404.26600    404.59900    493.52900    566.93100    663.53200    681.66600    694.14500    595.78000    626.29600    735.41800    675.43000    654.93500    565.33200    620.79500    679.68500    712.78300    767.80200    862.75500    988.97800   -999.90000   -999.90000   -999.90000   -999.90000   -999.90000   -999.90000   -999.90000   -999.90000   -999.90000   -999.90000   -999.90000   -999.90000   -999.90000
-999.90000   -999.90000   -999.90000   -999.90000   -999.90000   -999.90000   -999.90000   -999.90000   -999.90000   -999.90000   -999.90000   -999.90000   -999.90000   -999.90000   -999.90000   -999.90000   -999.90000   -999.90000   -999.90000   -999.90000   -999.90000   -999.90000   -999.90000   -999.90000   -999.90000   -999.90000   -999.90000   -999.90000   -999.90000   -999.90000   -999.90000   -999.90000   -999.90000   -999.90000   -999.90000   -999.90000   -999.90000   -999.90000   -999.90000   -999.90000   -999.90000   -999.90000   -999.90000    614.90200    550.68300    482.43100    417.94300    382.36900    379.66400    379.31700    368.06700    303.39700    294.67100    364.89300    283.58300    352.93100    464.50400    438.51500    378.89200    297.37000    228.59600    228.59500    225.09800    232.30800    286.25700    261.44200    252.50000    225.67800    168.25500    169.19100    197.00600    239.23800    229.66600    229.67200    259.77600    322.18900    388.93400    390.32900    312.11000    406.47000    516.43900    427.52900    348.61600    460.15400    373.67100    336.97000    336.97000    423.14300    371.25700    337.80200    338.02600    367.40000    343.67500    387.67700    444.74500    517.68400    591.46700    675.64000    704.50200    674.80900    607.56200    540.44900    662.31800    660.25200    637.85900    565.09000    549.23500    605.63200    626.22400    648.73200    738.49400    818.28900    910.82500   1047.00500   -999.90000   -999.90000   -999.90000   -999.90000   -999.90000   -999.90000   -999.90000   -999.90000   -999.90000   -999.90000   -999.90000   -999.90000
